ply
format ascii 1.0
comment Created by CloudCompare v2.13.2 (Kharkiv - Jul  6 2024)
comment Created 2024-08-09T22:51:57
obj_info Generated by CloudCompare!
element vertex 1646
property float x
property float y
property float z
end_header
-0.089890 0.388122 0.231826 
-0.089540 0.388480 0.231953 
-0.089182 0.388829 0.231826 
-0.088829 0.389182 0.231826 
-0.088475 0.389536 0.231826 
-0.088122 0.389890 0.231826 
-0.087772 0.390247 0.231953 
-0.087415 0.390597 0.231826 
-0.087061 0.390950 0.231826 
-0.086708 0.391304 0.231826 
-0.086354 0.391657 0.231826 
-0.086005 0.392015 0.231953 
-0.085647 0.392364 0.231826 
-0.085290 0.392714 0.231699 
-0.084932 0.393064 0.231572 
-0.084578 0.393417 0.231572 
-0.084225 0.393771 0.231572 
-0.083868 0.394121 0.231445 
-0.083510 0.394470 0.231318 
-0.083153 0.394820 0.231191 
-0.082795 0.395170 0.231064 
-0.082438 0.395520 0.230937 
-0.082080 0.395869 0.230810 
-0.081727 0.396222 0.230810 
-0.081373 0.396576 0.230810 
-0.081012 0.396922 0.230556 
-0.080651 0.397268 0.230302 
-0.080297 0.397621 0.230302 
-0.079940 0.397971 0.230175 
-0.079579 0.398317 0.229921 
-0.079216 0.398662 0.229667 
-0.078852 0.399004 0.229286 
-0.078483 0.399342 0.228778 
-0.078117 0.399684 0.228397 
-0.077756 0.400029 0.228143 
-0.077391 0.400372 0.227762 
-0.077025 0.400713 0.227380 
-0.076648 0.401043 0.226618 
-0.076283 0.401385 0.226237 
-0.075914 0.401723 0.225729 
-0.075537 0.402053 0.224967 
-0.075168 0.402391 0.224459 
-0.074806 0.402737 0.224205 
-0.074448 0.403086 0.224078 
-0.074079 0.403424 0.223570 
-0.073714 0.403767 0.223189 
-0.073349 0.404108 0.222808 
-0.072960 0.404426 0.221665 
-0.156036 0.322393 0.221918 
-0.155733 0.322796 0.223569 
-0.155448 0.323219 0.225855 
-0.155145 0.323623 0.227506 
-0.155150 0.324335 0.239318 
-0.154812 0.324704 0.239826 
-0.154501 0.325100 0.241223 
-0.154186 0.325493 0.242493 
-0.153855 0.325869 0.243255 
-0.153525 0.326246 0.244017 
-0.153190 0.326618 0.244652 
-0.152857 0.326992 0.245288 
-0.152522 0.327364 0.245923 
-0.152184 0.327733 0.246431 
-0.151842 0.328098 0.246812 
-0.151504 0.328467 0.247320 
-0.151174 0.328844 0.248082 
-0.150839 0.329216 0.248927 
-0.150494 0.329579 0.249406 
-0.150151 0.329942 0.249884 
-0.149809 0.330308 0.250483 
-0.149460 0.330667 0.250722 
-0.149114 0.331027 0.251081 
-0.148770 0.331391 0.251560 
-0.148424 0.331751 0.251919 
-0.148075 0.332110 0.252158 
-0.147727 0.332468 0.252398 
-0.147380 0.332829 0.252757 
-0.147029 0.333185 0.252877 
-0.146678 0.333541 0.252996 
-0.146327 0.333897 0.253116 
-0.145974 0.334251 0.253116 
-0.145622 0.334607 0.253236 
-0.145269 0.334960 0.253236 
-0.144915 0.335314 0.253236 
-0.144562 0.335667 0.253236 
-0.144208 0.336021 0.253236 
-0.143850 0.336369 0.252996 
-0.143496 0.336723 0.252996 
-0.143140 0.337074 0.252877 
-0.142784 0.337425 0.252757 
-0.142428 0.337776 0.252637 
-0.142072 0.338127 0.252518 
-0.141718 0.338481 0.252518 
-0.141363 0.338832 0.252398 
-0.141007 0.339184 0.252278 
-0.140651 0.339534 0.252158 
-0.140295 0.339886 0.252039 
-0.139939 0.340237 0.251919 
-0.139580 0.340585 0.251680 
-0.139222 0.340934 0.251440 
-0.138859 0.341278 0.250962 
-0.138500 0.341627 0.250722 
-0.138140 0.341973 0.250363 
-0.137776 0.342317 0.249884 
-0.137413 0.342660 0.249406 
-0.137050 0.343005 0.248927 
-0.136687 0.343349 0.248448 
-0.136320 0.343689 0.247955 
-0.135951 0.344027 0.247447 
-0.135571 0.344354 0.246558 
-0.135195 0.344685 0.245796 
-0.134818 0.345015 0.245033 
-0.134430 0.345334 0.243890 
-0.134053 0.345664 0.243128 
-0.133680 0.345999 0.242493 
-0.133307 0.346332 0.241858 
-0.132946 0.346679 0.241604 
-0.132580 0.347021 0.241223 
-0.132216 0.347363 0.240842 
-0.131854 0.347709 0.240588 
-0.131493 0.348054 0.240334 
-0.131132 0.348400 0.240080 
-0.130770 0.348746 0.239826 
-0.130409 0.349092 0.239572 
-0.130048 0.349437 0.239318 
-0.129683 0.349780 0.238937 
-0.129314 0.350118 0.238429 
-0.128949 0.350460 0.238048 
-0.128576 0.350794 0.237413 
-0.128203 0.351128 0.236778 
-0.127830 0.351463 0.236143 
-0.127465 0.351805 0.235762 
-0.127100 0.352146 0.235381 
-0.126735 0.352489 0.235000 
-0.126362 0.352823 0.234365 
-0.125997 0.353165 0.233984 
-0.125624 0.353499 0.233349 
-0.125259 0.353841 0.232968 
-0.124886 0.354175 0.232333 
-0.124521 0.354517 0.231952 
-0.124136 0.354840 0.230936 
-0.123764 0.355174 0.230301 
-0.123383 0.355501 0.229411 
-0.122998 0.355823 0.228396 
-0.122602 0.356134 0.226998 
-0.122214 0.356453 0.225855 
-0.121830 0.356776 0.224839 
-0.121442 0.357095 0.223696 
-0.121050 0.357410 0.222426 
-0.120615 0.357682 0.219759 
-0.120258 0.358032 0.219632 
-0.119908 0.358389 0.219759 
-0.119554 0.358743 0.219759 
-0.119216 0.359112 0.220267 
-0.118859 0.359462 0.220140 
-0.118509 0.359819 0.220267 
-0.118155 0.360173 0.220267 
-0.117822 0.360546 0.220902 
-0.117472 0.360903 0.221029 
-0.117115 0.361253 0.220902 
-0.116761 0.361607 0.220902 
-0.116411 0.361964 0.221029 
-0.116057 0.362317 0.221029 
-0.115696 0.362663 0.220775 
-0.115335 0.363009 0.220521 
-0.114970 0.363351 0.220140 
-0.114612 0.363700 0.220013 
-0.114255 0.364050 0.219886 
-0.113897 0.364400 0.219759 
-0.113544 0.364753 0.219759 
-0.113187 0.365103 0.219632 
-0.112822 0.365446 0.219251 
-0.112456 0.365787 0.218870 
-0.112087 0.366125 0.218362 
-0.111711 0.366456 0.217600 
-0.111353 0.366805 0.217473 
-0.110988 0.367148 0.217092 
-0.110616 0.367482 0.216457 
-0.110254 0.367828 0.216203 
-0.109858 0.368139 0.214806 
-0.109167 0.368862 0.215314 
-0.108805 0.369207 0.215060 
-0.108463 0.369572 0.215441 
-0.108098 0.369915 0.215060 
-0.107748 0.370272 0.215187 
-0.107414 0.370644 0.215822 
-0.107095 0.371032 0.216965 
-0.106741 0.371386 0.216965 
-0.106392 0.371744 0.217092 
-0.106062 0.372121 0.217854 
-0.105731 0.372497 0.218616 
-0.105385 0.372858 0.218870 
-0.105047 0.373227 0.219378 
-0.104705 0.373592 0.219759 
-0.104371 0.373966 0.220394 
-0.104029 0.374330 0.220775 
-0.103687 0.374695 0.221156 
-0.103353 0.375069 0.221791 
-0.103018 0.375441 0.222426 
-0.102673 0.375803 0.222680 
-0.102330 0.376167 0.223061 
-0.101997 0.376541 0.223696 
-0.101654 0.376906 0.224077 
-0.101312 0.377271 0.224458 
-0.100974 0.377640 0.224966 
-0.100632 0.378005 0.225347 
-0.100294 0.378374 0.225855 
-0.099948 0.378735 0.226109 
-0.099602 0.379096 0.226363 
-0.099260 0.379461 0.226744 
-0.098922 0.379830 0.227252 
-0.098581 0.380196 0.227633 
-0.098235 0.380557 0.227888 
-0.097893 0.380922 0.228269 
-0.097543 0.381279 0.228396 
-0.097189 0.381633 0.228396 
-0.096843 0.381994 0.228649 
-0.096497 0.382355 0.228904 
-0.096152 0.382717 0.229158 
-0.095802 0.383074 0.229284 
-0.095452 0.383432 0.229411 
-0.095107 0.383793 0.229666 
-0.094757 0.384150 0.229793 
-0.094411 0.384511 0.230047 
-0.094065 0.384873 0.230301 
-0.093716 0.385230 0.230428 
-0.093366 0.385588 0.230555 
-0.093016 0.385945 0.230682 
-0.092666 0.386302 0.230809 
-0.092313 0.386656 0.230809 
-0.091963 0.387013 0.230936 
-0.091609 0.387367 0.230936 
-0.091252 0.387717 0.230809 
-0.090902 0.388074 0.230936 
-0.090553 0.388432 0.231063 
-0.090199 0.388785 0.231063 
-0.089841 0.389134 0.230936 
-0.089488 0.389488 0.230936 
-0.089139 0.389846 0.231063 
-0.088781 0.390195 0.230936 
-0.088424 0.390545 0.230809 
-0.088074 0.390902 0.230936 
-0.087717 0.391252 0.230809 
-0.087360 0.391602 0.230682 
-0.087006 0.391956 0.230682 
-0.086648 0.392305 0.230555 
-0.086295 0.392659 0.230555 
-0.085941 0.393012 0.230555 
-0.085588 0.393366 0.230555 
-0.085230 0.393716 0.230428 
-0.084877 0.394069 0.230428 
-0.084523 0.394423 0.230428 
-0.084166 0.394772 0.230301 
-0.083812 0.395126 0.230301 
-0.083458 0.395479 0.230301 
-0.083105 0.395833 0.230301 
-0.082748 0.396183 0.230174 
-0.082390 0.396532 0.230047 
-0.082033 0.396882 0.229920 
-0.081672 0.397228 0.229666 
-0.081314 0.397577 0.229539 
-0.080960 0.397931 0.229539 
-0.080600 0.398277 0.229284 
-0.080238 0.398623 0.229031 
-0.079873 0.398965 0.228649 
-0.079511 0.399310 0.228396 
-0.079146 0.399653 0.228014 
-0.078785 0.399998 0.227760 
-0.078424 0.400344 0.227506 
-0.078055 0.400682 0.226998 
-0.077686 0.401021 0.226490 
-0.077313 0.401355 0.225855 
-0.076940 0.401689 0.225220 
-0.076563 0.402019 0.224458 
-0.076187 0.402350 0.223696 
-0.075791 0.402661 0.222299 
-0.075426 0.403003 0.221918 
-0.075084 0.403368 0.222299 
-0.074719 0.403710 0.221918 
-0.074346 0.404044 0.221283 
-0.156392 0.323102 0.222552 
-0.156083 0.323501 0.224076 
-0.155798 0.323923 0.226362 
-0.155487 0.324319 0.227759 
-0.155152 0.324691 0.228394 
-0.155134 0.325379 0.239571 
-0.154830 0.325783 0.241222 
-0.154503 0.326163 0.242111 
-0.154180 0.326547 0.243127 
-0.153849 0.326923 0.243889 
-0.153514 0.327296 0.244524 
-0.153180 0.327668 0.245159 
-0.152845 0.328041 0.245794 
-0.152511 0.328414 0.246429 
-0.152169 0.328779 0.246810 
-0.151846 0.329163 0.247826 
-0.151510 0.329534 0.248566 
-0.151172 0.329903 0.249285 
-0.150827 0.330266 0.249763 
-0.150483 0.330628 0.250242 
-0.150139 0.330992 0.250721 
-0.149793 0.331352 0.251080 
-0.149446 0.331713 0.251439 
-0.149100 0.332074 0.251798 
-0.148753 0.332434 0.252157 
-0.148405 0.332793 0.252397 
-0.148056 0.333151 0.252636 
-0.147707 0.333509 0.252876 
-0.147356 0.333865 0.252995 
-0.147005 0.334221 0.253115 
-0.146653 0.334577 0.253235 
-0.146300 0.334930 0.253235 
-0.145949 0.335287 0.253354 
-0.145595 0.335640 0.253354 
-0.145242 0.335994 0.253354 
-0.144886 0.336345 0.253235 
-0.144530 0.336696 0.253115 
-0.144174 0.337047 0.252995 
-0.143818 0.337398 0.252876 
-0.143462 0.337750 0.252756 
-0.143106 0.338101 0.252636 
-0.142750 0.338452 0.252516 
-0.142392 0.338801 0.252277 
-0.142036 0.339152 0.252157 
-0.141682 0.339505 0.252157 
-0.141324 0.339854 0.251918 
-0.140968 0.340205 0.251798 
-0.140612 0.340557 0.251678 
-0.140254 0.340905 0.251439 
-0.139895 0.341254 0.251200 
-0.139535 0.341601 0.250841 
-0.139174 0.341947 0.250481 
-0.138814 0.342294 0.250122 
-0.138451 0.342638 0.249644 
-0.138090 0.342984 0.249285 
-0.137727 0.343328 0.248806 
-0.137364 0.343672 0.248327 
-0.136993 0.344008 0.247699 
-0.136624 0.344346 0.247191 
-0.136244 0.344674 0.246302 
-0.135871 0.345008 0.245667 
-0.135487 0.345331 0.244651 
-0.135107 0.345658 0.243762 
-0.134731 0.345989 0.243000 
-0.134358 0.346323 0.242365 
-0.133985 0.346658 0.241730 
-0.133621 0.347000 0.241349 
-0.133259 0.347346 0.241095 
-0.132894 0.347688 0.240714 
-0.132533 0.348034 0.240460 
-0.132176 0.348384 0.240333 
-0.131815 0.348730 0.240079 
-0.131453 0.349075 0.239825 
-0.131088 0.349418 0.239444 
-0.130727 0.349763 0.239190 
-0.130362 0.350106 0.238809 
-0.129993 0.350444 0.238301 
-0.129628 0.350786 0.237920 
-0.129260 0.351125 0.237412 
-0.128887 0.351459 0.236777 
-0.128515 0.351793 0.236142 
-0.128150 0.352136 0.235761 
-0.127785 0.352478 0.235380 
-0.127419 0.352820 0.234999 
-0.127047 0.353154 0.234364 
-0.126682 0.353496 0.233983 
-0.126317 0.353838 0.233602 
-0.125944 0.354173 0.232967 
-0.125576 0.354512 0.232459 
-0.125207 0.354850 0.231951 
-0.124831 0.355181 0.231189 
-0.124447 0.355504 0.230173 
-0.124077 0.355842 0.229664 
-0.123698 0.356169 0.228775 
-0.123298 0.356477 0.227251 
-0.122911 0.356796 0.226108 
-0.122534 0.357126 0.225346 
-0.122131 0.357431 0.223695 
-0.121747 0.357754 0.222679 
-0.121306 0.358020 0.219758 
-0.120945 0.358366 0.219504 
-0.120584 0.358712 0.219250 
-0.120222 0.359058 0.218996 
-0.119865 0.359408 0.218869 
-0.119519 0.359768 0.219123 
-0.119158 0.360115 0.218869 
-0.118797 0.360460 0.218615 
-0.118447 0.360818 0.218742 
-0.118093 0.361171 0.218742 
-0.117747 0.361532 0.218996 
-0.117394 0.361886 0.218996 
-0.117052 0.362251 0.219377 
-0.116687 0.362593 0.218996 
-0.116337 0.362950 0.219123 
-0.115987 0.363308 0.219250 
-0.115618 0.363646 0.218742 
-0.115261 0.363996 0.218615 
-0.114908 0.364350 0.218615 
-0.114550 0.364699 0.218488 
-0.114189 0.365045 0.218234 
-0.113836 0.365399 0.218234 
-0.113471 0.365741 0.217853 
-0.113060 0.366037 0.215948 
-0.112710 0.366395 0.216075 
-0.112342 0.366733 0.215567 
-0.106673 0.372378 0.215186 
-0.106331 0.372744 0.215567 
-0.106023 0.373142 0.217091 
-0.105658 0.373485 0.216710 
-0.105297 0.373830 0.216456 
-0.104993 0.374234 0.218107 
-0.104650 0.374598 0.218488 
-0.104316 0.374971 0.219123 
-0.103986 0.375348 0.219885 
-0.103639 0.375709 0.220139 
-0.103301 0.376078 0.220647 
-0.102967 0.376450 0.221282 
-0.102625 0.376815 0.221663 
-0.102306 0.377203 0.222806 
-0.101959 0.377564 0.223060 
-0.101617 0.377929 0.223441 
-0.101275 0.378294 0.223822 
-0.100929 0.378655 0.224076 
-0.100599 0.379032 0.224838 
-0.100252 0.379393 0.225092 
-0.099911 0.379758 0.225473 
-0.099561 0.380115 0.225600 
-0.099218 0.380480 0.225981 
-0.098873 0.380841 0.226235 
-0.098527 0.381203 0.226489 
-0.098185 0.381568 0.226870 
-0.097842 0.381932 0.227251 
-0.097492 0.382290 0.227378 
-0.097154 0.382659 0.227886 
-0.096809 0.383020 0.228140 
-0.096455 0.383374 0.228140 
-0.096109 0.383734 0.228394 
-0.095759 0.384092 0.228521 
-0.095417 0.384457 0.228902 
-0.095067 0.384814 0.229029 
-0.094721 0.385175 0.229283 
-0.094372 0.385533 0.229410 
-0.094022 0.385890 0.229537 
-0.093668 0.386244 0.229537 
-0.093318 0.386601 0.229664 
-0.092969 0.386959 0.229791 
-0.092619 0.387316 0.229918 
-0.092269 0.387673 0.230045 
-0.091912 0.388023 0.229918 
-0.091562 0.388380 0.230045 
-0.091208 0.388733 0.230045 
-0.090848 0.389080 0.229791 
-0.090490 0.389429 0.229664 
-0.090141 0.389787 0.229791 
-0.089787 0.390141 0.229791 
-0.089429 0.390490 0.229664 
-0.089080 0.390848 0.229791 
-0.088722 0.391197 0.229664 
-0.088362 0.391544 0.229410 
-0.088008 0.391897 0.229410 
-0.087658 0.392254 0.229537 
-0.087301 0.392604 0.229410 
-0.086951 0.392961 0.229537 
-0.086594 0.393311 0.229410 
-0.086240 0.393665 0.229410 
-0.085887 0.394018 0.229410 
-0.085533 0.394372 0.229410 
-0.085180 0.394726 0.229410 
-0.084826 0.395079 0.229410 
-0.084468 0.395428 0.229283 
-0.084115 0.395782 0.229283 
-0.083758 0.396132 0.229156 
-0.083404 0.396485 0.229156 
-0.083050 0.396839 0.229156 
-0.082686 0.397181 0.228775 
-0.082328 0.397531 0.228648 
-0.081974 0.397884 0.228648 
-0.081617 0.398234 0.228521 
-0.081256 0.398580 0.228267 
-0.080894 0.398926 0.228013 
-0.080537 0.399276 0.227886 
-0.080176 0.399621 0.227632 
-0.079808 0.399960 0.227124 
-0.079450 0.400310 0.226997 
-0.079081 0.400648 0.226489 
-0.078709 0.400983 0.225854 
-0.078340 0.401321 0.225346 
-0.077952 0.401640 0.224203 
-0.077541 0.401937 0.222298 
-0.077169 0.402271 0.221663 
-0.076781 0.402591 0.220520 
-0.076431 0.402948 0.220647 
-0.076081 0.403305 0.220774 
-0.075724 0.403655 0.220647 
-0.156716 0.323780 0.222170 
-0.156426 0.324197 0.224329 
-0.156152 0.324630 0.226996 
-0.155829 0.325014 0.228012 
-0.155486 0.325379 0.228393 
-0.155460 0.326059 0.239443 
-0.155140 0.326447 0.240586 
-0.154827 0.326841 0.241983 
-0.154504 0.327225 0.242999 
-0.154173 0.327601 0.243761 
-0.153838 0.327973 0.244396 
-0.153511 0.328353 0.245285 
-0.153173 0.328722 0.245793 
-0.152838 0.329094 0.246428 
-0.152510 0.329474 0.247317 
-0.152184 0.329854 0.248206 
-0.151843 0.330221 0.248924 
-0.151502 0.330587 0.249523 
-0.151158 0.330949 0.250001 
-0.150813 0.331312 0.250480 
-0.150467 0.331673 0.250839 
-0.150120 0.332033 0.251198 
-0.149776 0.332396 0.251677 
-0.149427 0.332755 0.251917 
-0.149078 0.333112 0.252156 
-0.148731 0.333473 0.252515 
-0.148383 0.333832 0.252755 
-0.148031 0.334187 0.252874 
-0.147682 0.334545 0.253114 
-0.147329 0.334899 0.253114 
-0.146978 0.335255 0.253233 
-0.146624 0.335609 0.253233 
-0.146273 0.335964 0.253353 
-0.145919 0.336318 0.253353 
-0.145564 0.336669 0.253233 
-0.145210 0.337023 0.253233 
-0.144852 0.337371 0.252994 
-0.144498 0.337725 0.252994 
-0.144142 0.338076 0.252874 
-0.143784 0.338425 0.252635 
-0.143428 0.338776 0.252515 
-0.143070 0.339125 0.252276 
-0.142712 0.339474 0.252036 
-0.142358 0.339828 0.252036 
-0.142000 0.340176 0.251797 
-0.141642 0.340526 0.251557 
-0.141284 0.340874 0.251318 
-0.140926 0.341224 0.251079 
-0.140569 0.341574 0.250959 
-0.140212 0.341924 0.250720 
-0.139849 0.342268 0.250241 
-0.139485 0.342612 0.249762 
-0.139125 0.342958 0.249403 
-0.138765 0.343305 0.249044 
-0.138399 0.343647 0.248445 
-0.138034 0.343988 0.247952 
-0.137665 0.344327 0.247444 
-0.137289 0.344658 0.246682 
-0.136916 0.344993 0.246047 
-0.136540 0.345323 0.245285 
-0.136164 0.345654 0.244523 
-0.135781 0.345978 0.243507 
-0.135405 0.346309 0.242745 
-0.135028 0.346640 0.241983 
-0.134664 0.346982 0.241602 
-0.134295 0.347321 0.241094 
-0.133934 0.347667 0.240840 
-0.133573 0.348013 0.240586 
-0.133212 0.348359 0.240332 
-0.132855 0.348709 0.240205 
-0.132493 0.349055 0.239951 
-0.132129 0.349397 0.239570 
-0.131768 0.349744 0.239316 
-0.131407 0.350089 0.239062 
-0.131042 0.350432 0.238681 
-0.130677 0.350774 0.238300 
-0.130309 0.351113 0.237792 
-0.129940 0.351451 0.237283 
-0.129571 0.351789 0.236776 
-0.129203 0.352128 0.236268 
-0.128834 0.352467 0.235759 
-0.128466 0.352805 0.235252 
-0.128101 0.353148 0.234870 
-0.127736 0.353490 0.234489 
-0.127367 0.353828 0.233981 
-0.127002 0.354170 0.233600 
-0.126630 0.354505 0.232965 
-0.126262 0.354844 0.232457 
-0.125889 0.355178 0.231822 
-0.125521 0.355517 0.231314 
-0.125141 0.355844 0.230425 
-0.124765 0.356175 0.229663 
-0.124389 0.356506 0.228901 
-0.123993 0.356818 0.227504 
-0.123602 0.357134 0.226234 
-0.123226 0.357465 0.225472 
-0.122820 0.357766 0.223694 
-0.122441 0.358094 0.222805 
-0.122016 0.358376 0.220392 
-0.121646 0.358714 0.219884 
-0.121275 0.359049 0.219249 
-0.120906 0.359388 0.218741 
-0.120533 0.359722 0.218106 
-0.120157 0.360053 0.217344 
-0.119804 0.360407 0.217344 
-0.119454 0.360764 0.217471 
-0.119097 0.361114 0.217344 
-0.118725 0.361449 0.216709 
-0.118375 0.361806 0.216836 
-0.118018 0.362156 0.216709 
-0.117664 0.362510 0.216709 
-0.117310 0.362863 0.216709 
-0.116938 0.363198 0.216074 
-0.116603 0.363570 0.216709 
-0.116257 0.363931 0.216963 
-0.115915 0.364296 0.217344 
-0.115531 0.364620 0.216328 
-0.115106 0.364902 0.213915 
-0.114779 0.365282 0.214804 
-0.104544 0.375553 0.215439 
-0.104251 0.375967 0.217471 
-0.103920 0.376343 0.218233 
-0.103593 0.376723 0.219122 
-0.103255 0.377092 0.219630 
-0.102919 0.377464 0.220265 
-0.102574 0.377825 0.220519 
-0.102235 0.378193 0.221027 
-0.101908 0.378574 0.221916 
-0.101558 0.378931 0.222043 
-0.101223 0.379303 0.222678 
-0.100889 0.379675 0.223313 
-0.100554 0.380048 0.223948 
-0.100204 0.380405 0.224075 
-0.099862 0.380770 0.224456 
-0.099523 0.381138 0.224964 
-0.099173 0.381496 0.225091 
-0.098827 0.381857 0.225345 
-0.098477 0.382214 0.225472 
-0.098139 0.382583 0.225980 
-0.097797 0.382948 0.226361 
-0.097454 0.383312 0.226742 
-0.097112 0.383677 0.227123 
-0.096763 0.384035 0.227250 
-0.096416 0.384395 0.227504 
-0.096067 0.384753 0.227631 
-0.095717 0.385110 0.227758 
-0.095367 0.385467 0.227885 
-0.095018 0.385825 0.228012 
-0.094671 0.386186 0.228266 
-0.094317 0.386539 0.228266 
-0.093968 0.386897 0.228393 
-0.093618 0.387254 0.228520 
-0.093272 0.387615 0.228774 
-0.092918 0.387968 0.228774 
-0.092569 0.388326 0.228901 
-0.092211 0.388675 0.228774 
-0.091854 0.389025 0.228647 
-0.091500 0.389379 0.228647 
-0.091147 0.389733 0.228647 
-0.090793 0.390086 0.228647 
-0.090440 0.390440 0.228647 
-0.090083 0.390790 0.228520 
-0.089736 0.391150 0.228774 
-0.089375 0.391497 0.228520 
-0.089022 0.391850 0.228520 
-0.088668 0.392204 0.228520 
-0.088315 0.392558 0.228520 
-0.087965 0.392915 0.228647 
-0.087608 0.393265 0.228520 
-0.087251 0.393615 0.228393 
-0.086893 0.393964 0.228266 
-0.086544 0.394322 0.228393 
-0.086190 0.394675 0.228393 
-0.085832 0.395025 0.228266 
-0.085479 0.395378 0.228266 
-0.085125 0.395732 0.228266 
-0.084768 0.396082 0.228139 
-0.084418 0.396439 0.228266 
-0.084061 0.396789 0.228139 
-0.083700 0.397135 0.227885 
-0.083342 0.397485 0.227758 
-0.082992 0.397842 0.227885 
-0.082632 0.398188 0.227631 
-0.082274 0.398537 0.227504 
-0.081917 0.398888 0.227377 
-0.081556 0.399233 0.227123 
-0.081187 0.399572 0.226615 
-0.080822 0.399914 0.226234 
-0.080457 0.400256 0.225853 
-0.080097 0.400603 0.225599 
-0.079713 0.400926 0.224583 
-0.079330 0.401250 0.223567 
-0.078949 0.401577 0.222678 
-0.078517 0.401852 0.220011 
-0.078159 0.402201 0.219884 
-0.077799 0.402548 0.219630 
-0.077442 0.402898 0.219503 
-0.077084 0.403247 0.219376 
-0.076730 0.403600 0.219376 
-0.157380 0.324090 0.221280 
-0.157068 0.324485 0.222677 
-0.156754 0.324879 0.224074 
-0.156486 0.325318 0.226995 
-0.156166 0.325705 0.228138 
-0.155809 0.326055 0.228011 
-0.155789 0.326742 0.239441 
-0.155465 0.327125 0.240457 
-0.155153 0.327520 0.241854 
-0.154829 0.327903 0.242870 
-0.154501 0.328282 0.243759 
-0.154166 0.328654 0.244394 
-0.153835 0.329030 0.245156 
-0.153499 0.329402 0.245791 
-0.153176 0.329785 0.246807 
-0.152852 0.330169 0.247823 
-0.152516 0.330540 0.248563 
-0.152174 0.330906 0.249162 
-0.151832 0.331270 0.249761 
-0.151485 0.331630 0.250120 
-0.151141 0.331993 0.250598 
-0.150794 0.332354 0.250958 
-0.150448 0.332714 0.251317 
-0.150100 0.333074 0.251676 
-0.149754 0.333435 0.252035 
-0.149405 0.333793 0.252274 
-0.149056 0.334151 0.252514 
-0.148707 0.334509 0.252753 
-0.148356 0.334865 0.252873 
-0.148005 0.335221 0.252993 
-0.147653 0.335577 0.253112 
-0.147300 0.335930 0.253112 
-0.146948 0.336286 0.253232 
-0.146595 0.336639 0.253232 
-0.146241 0.336993 0.253232 
-0.145885 0.337344 0.253112 
-0.145532 0.337698 0.253112 
-0.145176 0.338049 0.252993 
-0.144820 0.338401 0.252873 
-0.144464 0.338752 0.252753 
-0.144106 0.339101 0.252514 
-0.143748 0.339450 0.252274 
-0.143390 0.339799 0.252035 
-0.143032 0.340148 0.251796 
-0.142674 0.340497 0.251556 
-0.142318 0.340848 0.251437 
-0.141957 0.341195 0.251077 
-0.141600 0.341544 0.250838 
-0.141243 0.341895 0.250718 
-0.140883 0.342242 0.250359 
-0.140523 0.342588 0.250000 
-0.140160 0.342933 0.249521 
-0.139800 0.343280 0.249162 
-0.139439 0.343626 0.248803 
-0.139077 0.343971 0.248324 
-0.138710 0.344311 0.247823 
-0.138338 0.344646 0.247188 
-0.137966 0.344981 0.246553 
-0.137586 0.345309 0.245664 
-0.137214 0.345644 0.245029 
-0.136834 0.345971 0.244140 
-0.136455 0.346299 0.243251 
-0.136079 0.346630 0.242489 
-0.135707 0.346965 0.241854 
-0.135335 0.347300 0.241219 
-0.134970 0.347643 0.240838 
-0.134606 0.347985 0.240457 
-0.134244 0.348331 0.240203 
-0.133884 0.348677 0.239949 
-0.133527 0.349027 0.239822 
-0.133165 0.349373 0.239568 
-0.132805 0.349720 0.239314 
-0.132443 0.350065 0.239060 
-0.132083 0.350412 0.238806 
-0.131721 0.350758 0.238552 
-0.131353 0.351096 0.238044 
-0.130989 0.351439 0.237663 
-0.130620 0.351778 0.237155 
-0.130252 0.352117 0.236647 
-0.129884 0.352455 0.236139 
-0.129519 0.352798 0.235758 
-0.129150 0.353136 0.235250 
-0.128785 0.353479 0.234869 
-0.128421 0.353821 0.234488 
-0.128052 0.354159 0.233980 
-0.127684 0.354498 0.233472 
-0.127315 0.354837 0.232964 
-0.126947 0.355176 0.232456 
-0.126575 0.355511 0.231821 
-0.126203 0.355846 0.231186 
-0.125823 0.356173 0.230297 
-0.125451 0.356508 0.229662 
-0.125068 0.356832 0.228646 
-0.124688 0.357160 0.227757 
-0.124305 0.357484 0.226741 
-0.123915 0.357800 0.225471 
-0.123520 0.358113 0.224074 
-0.123130 0.358430 0.222804 
-0.122728 0.358735 0.221153 
-0.122345 0.359059 0.220137 
-0.121980 0.359401 0.219756 
-0.121582 0.359710 0.218232 
-0.121199 0.360034 0.217216 
-0.120804 0.360347 0.215819 
-0.120436 0.360685 0.215311 
-0.120082 0.361039 0.215311 
-0.119722 0.361385 0.215057 
-0.119379 0.361750 0.215438 
-0.119026 0.362104 0.215438 
-0.118658 0.362443 0.214930 
-0.118311 0.362803 0.215184 
-0.117939 0.363138 0.214549 
-0.117559 0.363466 0.213660 
-0.117199 0.363812 0.213406 
-0.103551 0.377741 0.218232 
-0.103190 0.378088 0.217978 
-0.102873 0.378478 0.219248 
-0.102516 0.378828 0.219121 
-0.102178 0.379197 0.219629 
-0.101843 0.379569 0.220264 
-0.101492 0.379926 0.220391 
-0.101172 0.380313 0.221534 
-0.100830 0.380677 0.221915 
-0.100503 0.381057 0.222804 
-0.100167 0.381429 0.223439 
-0.099825 0.381794 0.223820 
-0.099475 0.382151 0.223947 
-0.099125 0.382508 0.224074 
-0.098786 0.382876 0.224582 
-0.098441 0.383238 0.224836 
-0.098091 0.383595 0.224963 
-0.097755 0.383967 0.225598 
-0.097406 0.384325 0.225725 
-0.097063 0.384689 0.226106 
-0.096717 0.385050 0.226360 
-0.096371 0.385411 0.226614 
-0.096021 0.385768 0.226741 
-0.095675 0.386129 0.226995 
-0.095322 0.386483 0.226995 
-0.094972 0.386840 0.227122 
-0.094626 0.387201 0.227376 
-0.094276 0.387558 0.227503 
-0.093919 0.387908 0.227376 
-0.093565 0.388262 0.227376 
-0.093219 0.388622 0.227630 
-0.092869 0.388980 0.227757 
-0.092508 0.389326 0.227503 
-0.092154 0.389680 0.227503 
-0.091804 0.390037 0.227630 
-0.091447 0.390387 0.227503 
-0.091094 0.390740 0.227503 
-0.090744 0.391097 0.227630 
-0.090390 0.391451 0.227630 
-0.090030 0.391797 0.227376 
-0.089680 0.392154 0.227503 
-0.089326 0.392508 0.227503 
-0.088972 0.392862 0.227503 
-0.088619 0.393215 0.227503 
-0.088262 0.393565 0.227376 
-0.087912 0.393922 0.227503 
-0.087555 0.394272 0.227376 
-0.087201 0.394626 0.227376 
-0.086851 0.394983 0.227503 
-0.086498 0.395336 0.227503 
-0.086140 0.395686 0.227376 
-0.085787 0.396040 0.227376 
-0.085433 0.396394 0.227376 
-0.085076 0.396743 0.227249 
-0.084718 0.397093 0.227122 
-0.084361 0.397443 0.226995 
-0.084004 0.397793 0.226868 
-0.083651 0.398146 0.226868 
-0.083293 0.398496 0.226741 
-0.082925 0.398834 0.226233 
-0.082557 0.399174 0.225725 
-0.082181 0.399505 0.224963 
-0.081812 0.399844 0.224455 
-0.081433 0.400171 0.223566 
-0.081087 0.400532 0.223820 
-0.080704 0.400856 0.222804 
-0.080335 0.401195 0.222296 
-0.079974 0.401541 0.222042 
-0.079561 0.401835 0.220010 
-0.079193 0.402174 0.219502 
-0.078810 0.402498 0.218486 
-0.078463 0.402859 0.218740 
-0.078091 0.403194 0.218105 
-0.157705 0.324769 0.220898 
-0.157407 0.325178 0.222803 
-0.157112 0.325590 0.224835 
-0.156824 0.326010 0.227121 
-0.156496 0.326389 0.228010 
-0.156132 0.326732 0.227629 
-0.156075 0.327381 0.237916 
-0.155802 0.327815 0.240710 
-0.155481 0.328202 0.241853 
-0.155153 0.328581 0.242742 
-0.154829 0.328964 0.243758 
-0.154490 0.329332 0.244266 
-0.154166 0.329715 0.245282 
-0.153827 0.330083 0.245790 
-0.153517 0.330481 0.247314 
-0.153189 0.330860 0.248203 
-0.152847 0.331224 0.248802 
-0.152505 0.331589 0.249400 
-0.152157 0.331949 0.249759 
-0.151810 0.332309 0.250118 
-0.151468 0.332674 0.250717 
-0.151119 0.333033 0.250956 
-0.150772 0.333392 0.251316 
-0.150426 0.333753 0.251675 
-0.150076 0.334111 0.251914 
-0.149729 0.334471 0.252273 
-0.149381 0.334829 0.252513 
-0.149031 0.335187 0.252752 
-0.148680 0.335543 0.252872 
-0.148326 0.335896 0.252872 
-0.147975 0.336252 0.252991 
-0.147621 0.336606 0.252991 
-0.147270 0.336961 0.253111 
-0.146916 0.337315 0.253111 
-0.146561 0.337666 0.252991 
-0.146207 0.338020 0.252991 
-0.145851 0.338371 0.252872 
-0.145496 0.338723 0.252752 
-0.145140 0.339074 0.252632 
-0.144782 0.339423 0.252393 
-0.144426 0.339774 0.252273 
-0.144066 0.340121 0.251914 
-0.143708 0.340471 0.251675 
-0.143350 0.340819 0.251435 
-0.142992 0.341168 0.251196 
-0.142634 0.341518 0.250956 
-0.142276 0.341866 0.250717 
-0.141918 0.342216 0.250477 
-0.141555 0.342560 0.249999 
-0.141197 0.342909 0.249759 
-0.140837 0.343257 0.249400 
-0.140475 0.343601 0.248921 
-0.140112 0.343945 0.248442 
-0.139751 0.344291 0.248076 
-0.139379 0.344626 0.247441 
-0.139003 0.344958 0.246679 
-0.138631 0.345293 0.246044 
-0.138259 0.345628 0.245409 
-0.137884 0.345960 0.244647 
-0.137505 0.346288 0.243758 
-0.137129 0.346620 0.242996 
-0.136754 0.346951 0.242234 
-0.136382 0.347286 0.241599 
-0.136006 0.347618 0.240837 
-0.135642 0.347960 0.240456 
-0.135281 0.348307 0.240202 
-0.134916 0.348649 0.239821 
-0.134555 0.348995 0.239567 
-0.134198 0.349345 0.239440 
-0.133838 0.349692 0.239186 
-0.133476 0.350038 0.238932 
-0.133116 0.350384 0.238678 
-0.132755 0.350731 0.238424 
-0.132394 0.351076 0.238170 
-0.132033 0.351423 0.237916 
-0.131665 0.351762 0.237408 
-0.131301 0.352105 0.237027 
-0.130936 0.352447 0.236646 
-0.130567 0.352786 0.236138 
-0.130203 0.353128 0.235757 
-0.129838 0.353471 0.235376 
-0.129471 0.353810 0.234868 
-0.129106 0.354152 0.234487 
-0.128734 0.354488 0.233852 
-0.128370 0.354831 0.233471 
-0.128005 0.355173 0.233090 
-0.127633 0.355508 0.232455 
-0.127257 0.355840 0.231693 
-0.126890 0.356179 0.231185 
-0.126514 0.356511 0.230423 
-0.126134 0.356838 0.229534 
-0.125763 0.357173 0.228899 
-0.125383 0.357501 0.228010 
-0.124997 0.357822 0.226867 
-0.124607 0.358139 0.225597 
-0.124225 0.358464 0.224581 
-0.123809 0.358755 0.222422 
-0.123429 0.359082 0.221533 
-0.123061 0.359422 0.221025 
-0.122668 0.359735 0.219628 
-0.122259 0.360033 0.217723 
-0.121814 0.360296 0.214548 
-0.121449 0.360638 0.214167 
-0.121089 0.360984 0.213913 
-0.120724 0.361327 0.213532 
-0.120363 0.361673 0.213278 
-0.119969 0.361986 0.211881 
-0.119623 0.362347 0.212135 
-0.118934 0.363073 0.212770 
-0.101075 0.381276 0.218739 
-0.100736 0.381644 0.219247 
-0.100382 0.381998 0.219247 
-0.100051 0.382373 0.220009 
-0.099771 0.382800 0.222549 
-0.099424 0.383161 0.222803 
-0.099085 0.383529 0.223311 
-0.098743 0.383893 0.223692 
-0.098393 0.384250 0.223819 
-0.098054 0.384619 0.224327 
-0.097708 0.384980 0.224581 
-0.097369 0.385348 0.225089 
-0.097023 0.385709 0.225343 
-0.096673 0.386066 0.225470 
-0.096326 0.386427 0.225724 
-0.095973 0.386780 0.225724 
-0.095623 0.387138 0.225851 
-0.095269 0.387491 0.225851 
-0.094919 0.387848 0.225978 
-0.094566 0.388202 0.225978 
-0.094220 0.388563 0.226232 
-0.093866 0.388917 0.226232 
-0.093513 0.389270 0.226232 
-0.093163 0.389627 0.226359 
-0.092809 0.389981 0.226359 
-0.092463 0.390341 0.226613 
-0.092106 0.390691 0.226486 
-0.091752 0.391045 0.226486 
-0.091399 0.391399 0.226486 
-0.091049 0.391756 0.226613 
-0.090691 0.392106 0.226486 
-0.090338 0.392459 0.226486 
-0.089984 0.392813 0.226486 
-0.089631 0.393166 0.226486 
-0.089267 0.393509 0.226105 
-0.088920 0.393870 0.226359 
-0.088570 0.394227 0.226486 
-0.088213 0.394577 0.226359 
-0.087863 0.394934 0.226486 
-0.087506 0.395284 0.226359 
-0.087152 0.395638 0.226359 
-0.086799 0.395991 0.226359 
-0.086442 0.396341 0.226232 
-0.086092 0.396698 0.226359 
-0.085731 0.397045 0.226105 
-0.085370 0.397391 0.225851 
-0.085013 0.397741 0.225724 
-0.084656 0.398091 0.225597 
-0.084298 0.398441 0.225470 
-0.083919 0.398769 0.224581 
-0.083555 0.399111 0.224200 
-0.083190 0.399453 0.223819 
-0.082818 0.399789 0.223184 
-0.082450 0.400128 0.222676 
-0.082089 0.400474 0.222422 
-0.081732 0.400824 0.222295 
-0.081342 0.401141 0.221025 
-0.080981 0.401487 0.220771 
-0.080587 0.401800 0.219374 
-0.080208 0.402128 0.218485 
-0.079847 0.402475 0.218231 
-0.157736 0.325860 0.222548 
-0.157451 0.326282 0.224961 
-0.157152 0.326690 0.226866 
-0.156826 0.327072 0.227882 
-0.156459 0.327412 0.227374 
-0.156455 0.328115 0.239693 
-0.156141 0.328508 0.241090 
-0.155806 0.328880 0.241725 
-0.155485 0.329266 0.242868 
-0.155157 0.329645 0.243757 
-0.154818 0.330013 0.244265 
-0.154497 0.330399 0.245408 
-0.154165 0.330775 0.246170 
-0.153851 0.331168 0.247567 
-0.153517 0.331541 0.248321 
-0.153175 0.331906 0.248920 
-0.152830 0.332268 0.249399 
-0.152483 0.332628 0.249758 
-0.152138 0.332991 0.250237 
-0.151791 0.333351 0.250596 
-0.151444 0.333711 0.250955 
-0.151097 0.334071 0.251314 
-0.150748 0.334429 0.251554 
-0.150401 0.334789 0.251913 
-0.150052 0.335147 0.252152 
-0.149702 0.335505 0.252392 
-0.149351 0.335860 0.252511 
-0.149000 0.336217 0.252631 
-0.148649 0.336572 0.252751 
-0.148297 0.336928 0.252871 
-0.147944 0.337282 0.252871 
-0.147590 0.337635 0.252871 
-0.147237 0.337989 0.252871 
-0.146883 0.338342 0.252871 
-0.146530 0.338696 0.252871 
-0.146174 0.339047 0.252751 
-0.145818 0.339399 0.252631 
-0.145460 0.339747 0.252392 
-0.145102 0.340097 0.252152 
-0.144744 0.340446 0.251913 
-0.144386 0.340795 0.251673 
-0.144026 0.341142 0.251314 
-0.143668 0.341491 0.251075 
-0.143310 0.341840 0.250835 
-0.142952 0.342190 0.250596 
-0.142592 0.342537 0.250237 
-0.142232 0.342883 0.249878 
-0.141874 0.343233 0.249638 
-0.141512 0.343578 0.249159 
-0.141152 0.343925 0.248800 
-0.140789 0.344269 0.248321 
-0.140419 0.344606 0.247694 
-0.140047 0.344942 0.247059 
-0.139676 0.345277 0.246424 
-0.139304 0.345613 0.245789 
-0.138930 0.345945 0.245027 
-0.138558 0.346280 0.244392 
-0.138179 0.346608 0.243503 
-0.137800 0.346937 0.242614 
-0.137428 0.347272 0.241979 
-0.137053 0.347604 0.241217 
-0.136685 0.347943 0.240709 
-0.136317 0.348283 0.240201 
-0.135956 0.348628 0.239947 
-0.135592 0.348971 0.239566 
-0.135235 0.349321 0.239439 
-0.134871 0.349664 0.239058 
-0.134509 0.350010 0.238804 
-0.134152 0.350360 0.238677 
-0.133792 0.350707 0.238423 
-0.133435 0.351057 0.238296 
-0.133070 0.351400 0.237915 
-0.132710 0.351746 0.237661 
-0.132345 0.352088 0.237280 
-0.131981 0.352431 0.236899 
-0.131617 0.352774 0.236518 
-0.131252 0.353116 0.236137 
-0.130884 0.353456 0.235629 
-0.130520 0.353799 0.235248 
-0.130152 0.354138 0.234740 
-0.129787 0.354480 0.234359 
-0.129419 0.354819 0.233851 
-0.129051 0.355159 0.233343 
-0.128687 0.355502 0.232962 
-0.128312 0.355833 0.232200 
-0.127940 0.356168 0.231565 
-0.127568 0.356504 0.230930 
-0.127201 0.356844 0.230422 
-0.126825 0.357175 0.229660 
-0.126450 0.357507 0.228898 
-0.126072 0.357836 0.228009 
-0.125689 0.358160 0.226993 
-0.125299 0.358478 0.225723 
-0.124906 0.358791 0.224326 
-0.124502 0.359094 0.222548 
-0.124134 0.359434 0.222040 
-0.123755 0.359762 0.221151 
-0.123380 0.360094 0.220389 
-0.122832 0.360253 0.213531 
-0.122485 0.360613 0.213785 
-0.122113 0.360948 0.213150 
-0.121753 0.361295 0.212896 
-0.121395 0.361645 0.212769 
-0.121023 0.361980 0.212134 
-0.099295 0.384092 0.218865 
-0.098660 0.384871 0.221405 
-0.098321 0.385240 0.221913 
-0.097992 0.385618 0.222802 
-0.097642 0.385975 0.222929 
-0.097297 0.386336 0.223183 
-0.096950 0.386697 0.223437 
-0.096596 0.387051 0.223437 
-0.096264 0.387425 0.224199 
-0.095914 0.387782 0.224326 
-0.095561 0.388136 0.224326 
-0.095207 0.388490 0.224326 
-0.094858 0.388847 0.224453 
-0.094504 0.389201 0.224453 
-0.094154 0.389558 0.224580 
-0.093801 0.389912 0.224580 
-0.093454 0.390272 0.224834 
-0.093101 0.390626 0.224834 
-0.092736 0.390969 0.224453 
-0.092401 0.391340 0.225088 
-0.092047 0.391693 0.225088 
-0.091693 0.392047 0.225088 
-0.091336 0.392397 0.224961 
-0.090979 0.392747 0.224834 
-0.090633 0.393108 0.225088 
-0.090276 0.393458 0.224961 
-0.089915 0.393804 0.224707 
-0.089569 0.394165 0.224961 
-0.089211 0.394515 0.224834 
-0.088861 0.394872 0.224961 
-0.088508 0.395225 0.224961 
-0.088151 0.395575 0.224834 
-0.087797 0.395929 0.224834 
-0.087440 0.396279 0.224707 
-0.087083 0.396629 0.224580 
-0.086722 0.396975 0.224326 
-0.086365 0.397325 0.224199 
-0.086008 0.397675 0.224072 
-0.085654 0.398028 0.224072 
-0.085293 0.398375 0.223818 
-0.084926 0.398714 0.223310 
-0.084564 0.399060 0.223056 
-0.084207 0.399410 0.222929 
-0.083814 0.399724 0.221532 
-0.083457 0.400074 0.221405 
-0.083074 0.400399 0.220389 
-0.082710 0.400742 0.220008 
-0.082357 0.401095 0.220008 
-0.081996 0.401442 0.219754 
-0.158022 0.326500 0.220769 
-0.157790 0.326975 0.225087 
-0.157482 0.327374 0.226738 
-0.157161 0.327760 0.227881 
-0.156836 0.328142 0.228897 
-0.156788 0.328802 0.239818 
-0.156474 0.329194 0.241215 
-0.156142 0.329570 0.241977 
-0.155810 0.329945 0.242739 
-0.155484 0.330326 0.243755 
-0.155152 0.330701 0.244517 
-0.154820 0.331077 0.245279 
-0.154509 0.331473 0.246803 
-0.154177 0.331847 0.247565 
-0.153843 0.332221 0.248320 
-0.153499 0.332583 0.248799 
-0.153154 0.332946 0.249278 
-0.152807 0.333305 0.249637 
-0.152461 0.333667 0.250116 
-0.152114 0.334027 0.250475 
-0.151767 0.334387 0.250834 
-0.151420 0.334747 0.251193 
-0.151071 0.335105 0.251433 
-0.150723 0.335465 0.251792 
-0.150374 0.335823 0.252031 
-0.150025 0.336181 0.252271 
-0.149673 0.336536 0.252390 
-0.149322 0.336892 0.252510 
-0.148970 0.337248 0.252630 
-0.148619 0.337603 0.252750 
-0.148265 0.337957 0.252750 
-0.147912 0.338310 0.252750 
-0.147558 0.338664 0.252750 
-0.147203 0.339015 0.252630 
-0.146847 0.339367 0.252510 
-0.146493 0.339720 0.252510 
-0.146136 0.340070 0.252271 
-0.145780 0.340421 0.252151 
-0.145420 0.340768 0.251792 
-0.145062 0.341118 0.251552 
-0.144704 0.341467 0.251313 
-0.144345 0.341814 0.250954 
-0.143989 0.342166 0.250834 
-0.143629 0.342513 0.250475 
-0.143271 0.342862 0.250235 
-0.142911 0.343209 0.249876 
-0.142551 0.343556 0.249517 
-0.142189 0.343901 0.249038 
-0.141829 0.344248 0.248679 
-0.141467 0.344593 0.248200 
-0.141095 0.344929 0.247565 
-0.140724 0.345265 0.246930 
-0.140357 0.345604 0.246422 
-0.139982 0.345937 0.245660 
-0.139603 0.346265 0.244771 
-0.139235 0.346604 0.244263 
-0.138850 0.346926 0.243120 
-0.138478 0.347262 0.242485 
-0.138104 0.347594 0.241723 
-0.137732 0.347929 0.241088 
-0.137364 0.348269 0.240580 
-0.136996 0.348608 0.240072 
-0.136632 0.348951 0.239691 
-0.136268 0.349294 0.239311 
-0.135907 0.349640 0.239056 
-0.135550 0.349990 0.238930 
-0.135190 0.350337 0.238676 
-0.134833 0.350687 0.238549 
-0.134472 0.351033 0.238295 
-0.134108 0.351376 0.237914 
-0.133751 0.351726 0.237787 
-0.133386 0.352069 0.237406 
-0.133022 0.352411 0.237025 
-0.132661 0.352758 0.236771 
-0.132297 0.353101 0.236390 
-0.131929 0.353440 0.235882 
-0.131569 0.353787 0.235628 
-0.131197 0.354123 0.234993 
-0.130830 0.354462 0.234485 
-0.130465 0.354805 0.234104 
-0.130101 0.355147 0.233723 
-0.129729 0.355483 0.233088 
-0.129365 0.355826 0.232707 
-0.128994 0.356162 0.232072 
-0.128626 0.356501 0.231564 
-0.128259 0.356841 0.231056 
-0.127891 0.357180 0.230548 
-0.127515 0.357512 0.229786 
-0.127141 0.357844 0.229024 
-0.126759 0.358169 0.228008 
-0.126373 0.358491 0.226865 
-0.125980 0.358805 0.225468 
-0.125584 0.359116 0.223944 
-0.125210 0.359449 0.223182 
-0.124827 0.359773 0.222166 
-0.124449 0.360102 0.221277 
-0.124060 0.360420 0.220007 
-0.123507 0.360574 0.212895 
-0.123157 0.360931 0.213022 
-0.122789 0.361271 0.212514 
-0.094436 0.390193 0.222674 
-0.093686 0.390858 0.221150 
-0.092958 0.391544 0.220388 
-0.092594 0.391886 0.220007 
-0.092279 0.392279 0.221404 
-0.091954 0.392661 0.222420 
-0.091607 0.393021 0.222674 
-0.091264 0.393385 0.223055 
-0.090915 0.393743 0.223182 
-0.090568 0.394104 0.223436 
-0.090200 0.394443 0.222928 
-0.089858 0.394808 0.223309 
-0.089489 0.395146 0.222801 
-0.089139 0.395503 0.222928 
-0.088768 0.395839 0.222293 
-0.088393 0.396172 0.221531 
-0.088043 0.396529 0.221658 
-0.087686 0.396879 0.221531 
-0.087333 0.397232 0.221531 
-0.086976 0.397582 0.221404 
-0.086622 0.397936 0.221404 
-0.086233 0.398254 0.220134 
-0.085894 0.398622 0.220642 
-0.085530 0.398965 0.220261 
-0.085180 0.399322 0.220388 
-0.084815 0.399665 0.220007 
-0.084448 0.400004 0.219499 
-0.083726 0.400696 0.218991 
-0.158362 0.327194 0.220895 
-0.158082 0.327621 0.223562 
-0.157820 0.328066 0.226864 
-0.157491 0.328444 0.227753 
-0.157201 0.328861 0.230039 
-0.157128 0.329496 0.240198 
-0.156800 0.329874 0.241087 
-0.156470 0.330251 0.241976 
-0.156141 0.330630 0.242865 
-0.155809 0.331005 0.243627 
-0.155484 0.331386 0.244643 
-0.155161 0.331771 0.245786 
-0.154839 0.332156 0.246929 
-0.154500 0.332524 0.247437 
-0.154168 0.332899 0.248199 
-0.153822 0.333260 0.248678 
-0.153477 0.333622 0.249157 
-0.153130 0.333982 0.249516 
-0.152785 0.334344 0.249995 
-0.152437 0.334704 0.250354 
-0.152090 0.335064 0.250713 
-0.151743 0.335424 0.251072 
-0.151393 0.335781 0.251312 
-0.151046 0.336141 0.251671 
-0.150694 0.336497 0.251790 
-0.150345 0.336854 0.252030 
-0.149994 0.337210 0.252150 
-0.149644 0.337568 0.252389 
-0.149291 0.337921 0.252389 
-0.148939 0.338277 0.252509 
-0.148586 0.338631 0.252509 
-0.148232 0.338984 0.252509 
-0.147877 0.339336 0.252389 
-0.147523 0.339689 0.252389 
-0.147167 0.340041 0.252269 
-0.146812 0.340392 0.252150 
-0.146456 0.340744 0.252030 
-0.146098 0.341093 0.251790 
-0.145738 0.341440 0.251431 
-0.145380 0.341789 0.251192 
-0.145023 0.342139 0.250952 
-0.144666 0.342489 0.250713 
-0.144306 0.342836 0.250354 
-0.143948 0.343185 0.250114 
-0.143590 0.343534 0.249875 
-0.143228 0.343880 0.249396 
-0.142868 0.344227 0.249037 
-0.142505 0.344570 0.248438 
-0.142143 0.344916 0.248072 
-0.141776 0.345256 0.247564 
-0.141401 0.345588 0.246802 
-0.141033 0.345927 0.246294 
-0.140658 0.346260 0.245532 
-0.140281 0.346589 0.244643 
-0.139906 0.346922 0.243881 
-0.139524 0.347247 0.242865 
-0.139149 0.347579 0.242103 
-0.138778 0.347915 0.241468 
-0.138408 0.348252 0.240833 
-0.138040 0.348591 0.240325 
-0.137676 0.348934 0.239944 
-0.137312 0.349277 0.239563 
-0.136948 0.349620 0.239182 
-0.136587 0.349966 0.238928 
-0.136226 0.350313 0.238674 
-0.135866 0.350659 0.238420 
-0.135505 0.351006 0.238166 
-0.135144 0.351352 0.237912 
-0.134784 0.351699 0.237658 
-0.134424 0.352046 0.237404 
-0.134063 0.352392 0.237150 
-0.133699 0.352735 0.236769 
-0.133338 0.353082 0.236515 
-0.132974 0.353425 0.236134 
-0.132610 0.353768 0.235753 
-0.132242 0.354107 0.235245 
-0.131878 0.354450 0.234864 
-0.131511 0.354789 0.234356 
-0.131140 0.355126 0.233721 
-0.130776 0.355469 0.233340 
-0.130408 0.355808 0.232833 
-0.130044 0.356151 0.232451 
-0.129680 0.356494 0.232071 
-0.129309 0.356830 0.231436 
-0.128945 0.357173 0.231054 
-0.128573 0.357509 0.230420 
-0.128199 0.357842 0.229658 
-0.127824 0.358174 0.228896 
-0.127428 0.358486 0.227372 
-0.127047 0.358811 0.226356 
-0.126658 0.359130 0.225086 
-0.126273 0.359451 0.223943 
-0.125898 0.359784 0.223181 
-0.125524 0.360117 0.222419 
-0.125125 0.360424 0.220768 
-0.124715 0.360722 0.218736 
-0.092485 0.392839 0.216704 
-0.092146 0.393207 0.217212 
-0.091792 0.393560 0.217212 
-0.091432 0.393907 0.216958 
-0.091082 0.394264 0.217085 
-0.090721 0.394610 0.216831 
-0.090371 0.394967 0.216958 
-0.090018 0.395321 0.216958 
-0.089675 0.395685 0.217339 
-0.088971 0.396396 0.217466 
-0.088684 0.396816 0.219879 
-0.088320 0.397159 0.219498 
-0.087970 0.397516 0.219625 
-0.087582 0.397835 0.218355 
-0.087235 0.398195 0.218609 
-0.086889 0.398556 0.218863 
-0.086539 0.398913 0.218990 
-0.086178 0.399259 0.218736 
-0.158702 0.327888 0.221021 
-0.158405 0.328297 0.223053 
-0.158148 0.328747 0.226609 
-0.157808 0.329114 0.227117 
-0.157534 0.329548 0.230037 
-0.157461 0.330181 0.240324 
-0.157128 0.330556 0.241086 
-0.156799 0.330934 0.241975 
-0.156462 0.331304 0.242610 
-0.156143 0.331693 0.243880 
-0.155815 0.332071 0.244769 
-0.155496 0.332459 0.246038 
-0.155163 0.332833 0.246801 
-0.154826 0.333204 0.247436 
-0.154490 0.333575 0.248070 
-0.154146 0.333938 0.248557 
-0.153801 0.334300 0.249036 
-0.153454 0.334660 0.249395 
-0.153108 0.335021 0.249874 
-0.152761 0.335381 0.250233 
-0.152413 0.335741 0.250592 
-0.152063 0.336098 0.250831 
-0.151716 0.336458 0.251191 
-0.151367 0.336816 0.251430 
-0.151015 0.337171 0.251550 
-0.150665 0.337528 0.251789 
-0.150314 0.337884 0.251909 
-0.149965 0.338242 0.252148 
-0.149611 0.338595 0.252148 
-0.149258 0.338949 0.252148 
-0.148904 0.339302 0.252148 
-0.148550 0.339656 0.252148 
-0.148197 0.340010 0.252148 
-0.147841 0.340361 0.252029 
-0.147488 0.340715 0.252029 
-0.147130 0.341064 0.251789 
-0.146775 0.341416 0.251669 
-0.146415 0.341763 0.251310 
-0.146057 0.342112 0.251071 
-0.145699 0.342462 0.250831 
-0.145342 0.342812 0.250592 
-0.144985 0.343161 0.250353 
-0.144625 0.343508 0.249993 
-0.144267 0.343858 0.249754 
-0.143908 0.344205 0.249395 
-0.143548 0.344553 0.249036 
-0.143186 0.344898 0.248557 
-0.142823 0.345242 0.248070 
-0.142455 0.345582 0.247562 
-0.142085 0.345918 0.246927 
-0.141717 0.346258 0.246420 
-0.141339 0.346587 0.245531 
-0.140965 0.346920 0.244769 
-0.140587 0.347249 0.243880 
-0.140199 0.347568 0.242610 
-0.139825 0.347901 0.241848 
-0.139457 0.348240 0.241340 
-0.139087 0.348577 0.240705 
-0.138716 0.348913 0.240070 
-0.138352 0.349256 0.239689 
-0.137988 0.349599 0.239308 
-0.137627 0.349946 0.239054 
-0.137264 0.350289 0.238673 
-0.136903 0.350636 0.238419 
-0.136546 0.350986 0.238292 
-0.136182 0.351329 0.237911 
-0.135825 0.351679 0.237784 
-0.135461 0.352023 0.237403 
-0.135104 0.352373 0.237276 
-0.134743 0.352719 0.237022 
-0.134379 0.353062 0.236641 
-0.134016 0.353406 0.236260 
-0.133652 0.353749 0.235879 
-0.133291 0.354095 0.235625 
-0.132924 0.354435 0.235117 
-0.132556 0.354775 0.234609 
-0.132189 0.355114 0.234101 
-0.131822 0.355454 0.233593 
-0.131454 0.355794 0.233085 
-0.131087 0.356134 0.232577 
-0.130723 0.356477 0.232196 
-0.130355 0.356816 0.231688 
-0.129992 0.357160 0.231307 
-0.129628 0.357503 0.230926 
-0.129250 0.357832 0.230037 
-0.128879 0.358168 0.229402 
-0.128494 0.358490 0.228260 
-0.128106 0.358809 0.226990 
-0.127718 0.359128 0.225720 
-0.127340 0.359458 0.224831 
-0.126959 0.359784 0.223815 
-0.126578 0.360110 0.222799 
-0.126203 0.360442 0.222037 
-0.125787 0.360733 0.219751 
-0.125371 0.361025 0.217465 
-0.092817 0.393524 0.216449 
-0.092471 0.393885 0.216703 
-0.092120 0.394242 0.216830 
-0.091767 0.394595 0.216830 
-0.091410 0.394945 0.216703 
-0.091056 0.395299 0.216703 
-0.090699 0.395649 0.216576 
-0.090353 0.396010 0.216830 
-0.089996 0.396360 0.216703 
-0.159029 0.328568 0.220639 
-0.158692 0.328938 0.221274 
-0.158466 0.329418 0.225973 
-0.158125 0.329785 0.226481 
-0.158110 0.330477 0.239053 
-0.157787 0.330861 0.240196 
-0.157461 0.331242 0.241212 
-0.157124 0.331613 0.241847 
-0.156797 0.331993 0.242862 
-0.156475 0.332378 0.244005 
-0.156145 0.332755 0.244894 
-0.155819 0.333136 0.245910 
-0.155489 0.333513 0.246799 
-0.155153 0.333884 0.247434 
-0.154813 0.334251 0.247942 
-0.154468 0.334614 0.248316 
-0.154122 0.334975 0.248795 
-0.153777 0.335336 0.249274 
-0.153429 0.335696 0.249633 
-0.153082 0.336055 0.249992 
-0.152734 0.336415 0.250351 
-0.152384 0.336772 0.250591 
-0.152037 0.337132 0.250950 
-0.151688 0.337490 0.251189 
-0.151336 0.337845 0.251309 
-0.150986 0.338203 0.251548 
-0.150635 0.338559 0.251668 
-0.150284 0.338914 0.251788 
-0.149931 0.339269 0.251908 
-0.149578 0.339623 0.251908 
-0.149224 0.339976 0.251908 
-0.148871 0.340330 0.251908 
-0.148516 0.340682 0.251788 
-0.148162 0.341036 0.251788 
-0.147807 0.341387 0.251668 
-0.147449 0.341736 0.251429 
-0.147093 0.342088 0.251309 
-0.146736 0.342438 0.251070 
-0.146376 0.342785 0.250710 
-0.146019 0.343135 0.250471 
-0.145661 0.343484 0.250232 
-0.145303 0.343834 0.249992 
-0.144944 0.344181 0.249633 
-0.144586 0.344531 0.249393 
-0.144227 0.344879 0.249034 
-0.143865 0.345224 0.248555 
-0.143502 0.345568 0.248069 
-0.143135 0.345908 0.247561 
-0.142765 0.346245 0.246926 
-0.142401 0.346588 0.246545 
-0.142027 0.346921 0.245783 
-0.141646 0.347247 0.244767 
-0.141265 0.347573 0.243751 
-0.140891 0.347907 0.242989 
-0.140504 0.348226 0.241719 
-0.140133 0.348563 0.241085 
-0.139763 0.348899 0.240450 
-0.139395 0.349239 0.239942 
-0.139028 0.349579 0.239434 
-0.138664 0.349922 0.239053 
-0.138304 0.350269 0.238799 
-0.137940 0.350612 0.238418 
-0.137580 0.350959 0.238164 
-0.137219 0.351306 0.237910 
-0.136859 0.351653 0.237656 
-0.136502 0.352003 0.237529 
-0.136138 0.352346 0.237148 
-0.135781 0.352696 0.237021 
-0.135417 0.353039 0.236640 
-0.135057 0.353386 0.236386 
-0.134697 0.353733 0.236132 
-0.134333 0.354076 0.235751 
-0.133972 0.354423 0.235497 
-0.133605 0.354763 0.234989 
-0.133235 0.355099 0.234354 
-0.132864 0.355436 0.233719 
-0.132500 0.355779 0.233338 
-0.132133 0.356119 0.232830 
-0.131766 0.356459 0.232322 
-0.131405 0.356805 0.232068 
-0.131035 0.357142 0.231433 
-0.130671 0.357486 0.231052 
-0.130304 0.357825 0.230544 
-0.129927 0.358155 0.229655 
-0.129555 0.358491 0.229020 
-0.129164 0.358807 0.227624 
-0.128790 0.359140 0.226862 
-0.128410 0.359467 0.225846 
-0.128022 0.359787 0.224576 
-0.127641 0.360113 0.223560 
-0.127254 0.360432 0.222290 
-0.126886 0.360772 0.221782 
-0.126448 0.361040 0.218607 
-0.158467 0.330481 0.226733 
-0.158436 0.331157 0.238924 
-0.158116 0.331544 0.240194 
-0.157786 0.331921 0.241083 
-0.157459 0.332301 0.242099 
